# .PCD v0.7 - Point Cloud Data file format
VERSION 0.7
FIELDS x y z intensity ring
SIZE 4 4 4 4 2
TYPE F F F F U
COUNT 1 1 1 1 1
WIDTH 1322
HEIGHT 1
VIEWPOINT 0 0 0 1 0 0 0
POINTS 1322
DATA ascii
1.9819411 -2.0543222 -1.1973041 0 4
2.0460632 -2.0025008 -1.2008294 0 4
2.1055651 -1.9456618 -1.2024853 0 4
2.1538365 -1.878637 -1.1987696 0 4
2.2061551 -1.8155133 -1.1983967 0 4
2.2664201 -1.7585346 -1.2032239 0 4
2.3067634 -1.6860926 -1.1984596 0 4
2.3638339 -1.6258647 -1.2033732 0 4
2.4045844 -1.5542078 -1.2009176 0 4
2.4548652 -1.4886435 -1.2041972 0 4
2.4896467 -1.4136848 -1.2008631 0 4
2.5133088 -1.3332671 -1.1933296 0 4
2.5584788 -1.2645539 -1.1970528 0 4
2.6054313 -1.1960247 -1.2024665 0 4
2.637835 -1.1204379 -1.2020866 0 4
2.6688759 -1.0443009 -1.2020798 0 4
2.689898 -0.96450084 -1.1985879 0 4
2.7250006 -0.88972932 -1.2023567 0 4
2.7361553 -0.8072843 -1.1965636 0 4
2.7645113 -0.73013192 -1.1993071 0 4
2.7848279 -0.65064663 -1.1995265 0 4
2.7988515 -0.56978071 -1.1980305 0 4
2.8247123 -0.49111199 -1.202572 0 4
2.8332157 -0.40924037 -1.2006979 0 4
2.8464174 -0.32810014 -1.2018075 0 4
2.8473315 -0.24567953 -1.1987231 0 4
2.8601754 -0.16429906 -1.2016505 0 4
2.8629146 -0.08216048 -1.2013161 0 4
2.8708508 0 -1.2041506 0 4
2.862684 0.082153864 -1.2012194 0 4
2.8556304 0.16403797 -1.199741 0 4
2.8435221 0.24535085 -1.1971194 0 4
2.8442364 0.32784876 -1.2008867 0 4
2.83605 0.40964976 -1.2018991 0 4
2.8246996 0.49110982 -1.2025666 0 4
2.8019538 0.57041228 -1.1993583 0 4
2.7802131 0.64956844 -1.1975387 0 4
2.7672789 0.73086286 -1.2005076 0 4
2.7389271 0.80810213 -1.1977757 0 4
2.7076931 0.88407832 -1.19472 0 4
2.6970708 0.96707278 -1.201784 0 4
2.6689186 1.0443177 -1.2020991 0 4
2.6398997 1.1213149 -1.2030275 0 4
2.6162984 1.2010132 -1.207482 0 4
2.5687246 1.2696179 -1.2018466 0 4
2.5189843 1.336278 -1.1960244 0 4
2.4810631 1.408811 -1.196723 0 4
2.4400628 1.4796673 -1.196936 0 4
2.4035642 1.5535485 -1.2004081 0 4
2.3530555 1.6184512 -1.1978861 0 4
2.308419 1.6873027 -1.1993197 0 4
2.2521737 1.7474805 -1.1956605 0 4
2.2133665 1.8214477 -1.202314 0 4
2.1530559 1.8779563 -1.1983352 0 4
2.1026361 1.9429551 -1.2008125 0 4
2.0474336 2.0038421 -1.2016337 0 4
1.9883928 2.0610096 -1.2012017 0 4
1.9339156 2.1231999 -1.2046051 0 4
1.8644044 2.1687202 -1.199581 0 4
1.8031179 2.2233992 -1.2007087 0 4
1.7469332 2.2851167 -1.2064676 0 4
1.671617 2.3217261 -1.1999743 0 4
1.6089386 2.3755317 -1.2034235 0 4
1.5354325 2.4133236 -1.1997521 0 4
1.4647416 2.4549863 -1.1990731 0 4
1.3952957 2.4988267 -1.2004339 0 4
1.3250691 2.5417178 -1.2022755 0 4
1.254642 2.584928 -1.2051871 0 4
1.1754755 2.6098685 -1.200593 0 4
1.0970497 2.6351299 -1.1972378 0 4
1.0252874 2.6766937 -1.2022583 0 4
0.94963157 2.7094285 -1.2042249 0 4
0.86972374 2.7299261 -1.2017471 0 4
0.78651762 2.7379596 -1.1948553 0 4
0.71420568 2.7849514 -1.2059214 0 4
0.63098657 2.7908695 -1.2001488 0 4
0.55264974 2.8179319 -1.2044703 0 4
0.47016972 2.8241184 -1.2008529 0 4
0.38902342 2.8368878 -1.201041 0 4
0.30771708 2.849045 -1.2019542 0 4
0.22656801 2.865634 -1.2057133 0 4
0.14401761 2.8659296 -1.2036033 0 4
0.061234266 2.8451426 -1.1936438 0 4
-0.020547558 2.8652182 -1.2018188 0 4
-0.10259439 2.8596182 -1.2002108 0 4
-0.18410891 2.8481445 -1.19712 0 4
-0.2673696 2.8591588 -1.2044786 0 4
-0.347399 2.8349745 -1.1979972 0 4
-0.42924029 2.8281848 -1.1998396 0 4
-0.51552373 2.8441112 -1.2123736 0 4
-0.59234756 2.8065879 -1.2031294 0 4
-0.67283195 2.7893414 -1.203518 0 4
-0.7507304 2.7621198 -1.2005743 0 4
-0.82940966 2.7386317 -1.2002168 0 4
-0.90736175 2.7129104 -1.1998624 0 4
-0.98564726 2.6880431 -1.2008802 0 4
-1.0640242 2.6628475 -1.2027705 0 4
-1.1406511 2.632792 -1.2034851 0 4
-1.2103907 2.5876219 -1.1982224 0 4
-1.2849538 2.5534883 -1.1989985 0 4
-1.3617419 2.5231113 -1.2025898 0 4
-1.4382361 2.4911082 -1.2065121 0 4
-1.4969761 2.4291434 -1.1968151 0 4
-1.5755862 2.3997355 -1.204108 0 4
-1.6330013 2.3381207 -1.1962142 0 4
-1.7071413 2.3007445 -1.2016622 0 4
-1.7669262 2.2438254 -1.1979249 0 4
-1.8364193 2.1992247 -1.201755 0 4
-1.8936057 2.1398249 -1.1984984 0 4
-1.9576584 2.0883017 -1.200613 0 4
-2.0103745 2.0248542 -1.1968125 0 4
-2.0763745 1.9746637 -1.2018723 0 4
-2.1253343 1.908154 -1.1980215 0 4
-2.1826539 1.8493289 -1.1999215 0 4
-2.2335143 1.784923 -1.1992278 0 4
-2.2808011 1.7178596 -1.1976541 0 4
-2.3357317 1.6563982 -1.2010429 0 4
-2.3879011 1.5924569 -1.2038733 0 4
-2.4298153 1.5215576 -1.2024952 0 4
-2.4713192 1.4505572 -1.2019387 0 4
-2.5114832 1.3788308 -1.2017329 0 4
-2.5601323 1.3114064 -1.2065063 0 4
-2.5973191 1.2377217 -1.2067949 0 4
-2.6268151 1.1605217 -1.2045292 0 4
-2.6598701 1.0850351 -1.2049119 0 4
-2.6753585 1.0028353 -1.1983976 0 4
-2.6994576 0.92445445 -1.196816 0 4
-2.7316113 0.84873205 -1.1997786 0 4
-2.7547002 0.76998532 -1.1997203 0 4
-2.769577 0.68913382 -1.1970934 0 4
-2.7770698 0.60696709 -1.1923122 0 4
-2.8146849 0.53108084 -1.2014236 0 4
-2.8238685 0.44934064 -1.1993456 0 4
-2.8356302 0.36815351 -1.1993598 0 4
-2.8384621 0.28599685 -1.1965935 0 4
-2.8591437 0.2054344 -1.2023318 0 4
-2.8726485 0.12370982 -1.2060213 0 4
-2.8586442 0.041018106 -1.199154 0 4
-2.8860607 7.6584211e-06 -1.2105302 0 4
-3.1540041 -0.045256168 -1.1967326 0 5
-3.1638253 -0.13624926 -1.2014481 0 5
-3.1468132 -0.22610393 -1.1969591 0 5
-3.1427026 -0.3166514 -1.1983588 0 5
-3.1434596 -0.40811941 -1.2026184 0 5
-3.1119049 -0.49517363 -1.1954906 0 5
-3.1154368 -0.58782738 -1.2028331 0 5
-3.0921047 -0.67582232 -1.2008185 0 5
-3.0694232 -0.76374239 -1.2000281 0 5
-3.0339744 -0.8480472 -1.1951917 0 5
-3.0121009 -0.93588233 -1.1966628 0 5
-3.0096688 -1.0306891 -1.2069509 0 5
-2.9610784 -1.1099348 -1.1997448 0 5
-2.9406829 -1.1995864 -1.2049335 0 5
-2.8999302 -1.2811835 -1.2028054 0 5
-2.8727136 -1.3689576 -1.2073146 0 5
-2.8245544 -1.4468546 -1.2040297 0 5
-2.7722476 -1.5219932 -1.1998576 0 5
-2.7322519 -1.6037133 -1.2019717 0 5
-2.6734049 -1.6740941 -1.1967263 0 5
-2.6319559 -1.7552136 -1.2002262 0 5
-2.5829115 -1.8316872 -1.2013376 0 5
-2.5261662 -1.9026644 -1.1998472 0 5
-2.4736314 -1.9768136 -1.2013456 0 5
-2.4231131 -2.0530663 -1.2049296 0 5
-2.3526037 -2.1121993 -1.1995162 0 5
-2.2944615 -2.1820679 -1.2013055 0 5
-2.2326505 -2.2487309 -1.2022364 0 5
-2.171042 -2.3159254 -1.2043546 0 5
-2.0981956 -2.3710167 -1.201196 0 5
-2.0306804 -2.4318643 -1.2020035 0 5
-1.9556811 -2.483526 -1.1993039 0 5
-1.8830686 -2.5378449 -1.1989446 0 5
-1.8033979 -2.5820932 -1.1949066 0 5
-1.7363639 -2.6446118 -1.200284 0 5
-1.6600504 -2.693764 -1.2004759 0 5
-1.5825911 -2.7411394 -1.2008541 0 5
-1.5073166 -2.7928402 -1.2040573 0 5
-1.4187043 -2.8192801 -1.1974103 0 5
-1.3428268 -2.8707495 -1.2024081 0 5
-1.2610497 -2.9106901 -1.2034837 0 5
-1.1779426 -2.947942 -1.2044131 0 5
-1.0910559 -2.975512 -1.2023895 0 5
-1.0039352 -3.0016544 -1.2008166 0 5
-0.91775322 -3.0303338 -1.2012588 0 5
-0.83227187 -3.0621307 -1.2038996 0 5
-0.74197632 -3.0759916 -1.2004832 0 5
-0.65566194 -3.1065762 -1.2045802 0 5
-0.56136918 -3.0970376 -1.1941432 0 5
-0.4762063 -3.1376352 -1.2040316 0 5
-0.38454196 -3.1380825 -1.1994745 0 5
-0.29364643 -3.1401544 -1.1965526 0 5
-0.20466426 -3.1661334 -1.2037183 0 5
-0.11331369 -3.1583979 -1.1990473 0 5
-0.02264501 -3.1576939 -1.1980401 0 5
0.06827765 -3.172401 -1.2038679 0 5
0.159172 -3.1674995 -1.203246 0 5
0.24957731 -3.1566558 -1.201353 0 5
0.34140626 -3.1609614 -1.2062236 0 5
0.43053028 -3.1395698 -1.2022805 0 5
0.51905674 -3.1177628 -1.1991402 0 5
0.60915309 -3.1060395 -1.2008606 0 5
0.69735515 -3.0844195 -1.1997453 0 5
0.78710353 -3.069207 -1.2021194 0 5
0.8735463 -3.0409167 -1.2003636 0 5
0.96074671 -3.0156329 -1.2007723 0 5
1.0485115 -2.9915466 -1.2026678 0 5
1.1370001 -2.9683394 -1.2059596 0 5
1.2162088 -2.9213521 -1.2005557 0 5
1.2996776 -2.8856304 -1.2007093 0 5
1.3862318 -2.8560412 -1.2044548 0 5
1.4663122 -2.8126471 -1.2034054 0 5
1.5438801 -2.7649255 -1.2014496 0 5
1.6348647 -2.7401218 -1.2105604 0 5
1.6994072 -2.6710517 -1.2010975 0 5
1.776252 -2.6225629 -1.2017208 0 5
1.856087 -2.5779381 -1.2051843 0 5
1.9264164 -2.5198936 -1.2033987 0 5
1.9934418 -2.4580848 -1.2007073 0 5
2.0638964 -2.4007742 -1.2011504 0 5
2.1322737 -2.3409724 -1.2013516 0 5
2.1967475 -2.2769735 -1.2003666 0 5
2.263833 -2.2156341 -1.2017847 0 5
2.32656 -2.1498737 -1.2018365 0 5
2.3887496 -2.083535 -1.202579 0 5
2.4523644 -2.0181267 -1.2049516 0 5
2.5034502 -1.942448 -1.2021675 0 5
2.5566292 -1.8687282 -1.2014567 0 5
2.6171744 -1.8001144 -1.2051359 0 5
2.6516881 -1.7139237 -1.1978865 0 5
2.7083509 -1.6423587 -1.2016969 0 5
2.7549055 -1.5643057 -1.2019393 0 5
2.7859323 -1.4778892 -1.1964791 0 5
2.8282399 -1.397886 -1.1969273 0 5
2.8753443 -1.3199282 -1.2003371 0 5
2.908551 -1.2354262 -1.1989051 0 5
2.941201 -1.1508588 -1.1982561 0 5
2.9840329 -1.069967 -1.2027011 0 5
3.0104771 -0.98293918 -1.2014953 0 5
3.0343835 -0.89527458 -1.2002882 0 5
3.0629749 -0.80895877 -1.2019198 0 5
3.0793273 -0.71945339 -1.1997406 0 5
3.1022706 -0.63154972 -1.2011236 0 5
3.1143203 -0.54146403 -1.1992788 0 5
3.1304724 -0.45217723 -1.2000077 0 5
3.1425765 -0.36223772 -1.2001684 0 5
3.1551132 -0.27223623 -1.201478 0 5
3.1634672 -0.18172126 -1.2021782 0 5
3.1629 -0.090769514 -1.2004786 0 5
3.1660488 0 -1.2011791 0 5
3.1660051 0.090858631 -1.2016572 0 5
3.1577561 0.18139319 -1.200008 0 5
3.1503496 0.27182519 -1.1996639 0 5
3.1443067 0.36243719 -1.2008293 0 5
3.1293428 0.45201406 -1.1995746 0 5
3.1279428 0.54383248 -1.2045248 0 5
3.0986249 0.63080758 -1.199712 0 5
3.0897257 0.72188288 -1.203792 0 5
3.0712008 0.81113136 -1.2051476 0 5
3.0439551 0.89809859 -1.2040743 0 5
3.0137093 0.98399448 -1.2027853 0 5
2.9754908 1.0669042 -1.1992582 0 5
2.945786 1.1526527 -1.2001241 0 5
2.9085412 1.235422 -1.1989011 0 5
2.879127 1.3216647 -1.2019162 0 5
2.832233 1.3998597 -1.1986172 0 5
2.7952747 1.4828452 -1.2004914 0 5
2.7661774 1.570706 -1.2068571 0 5
2.7056708 1.6407335 -1.2005076 0 5
2.6531351 1.714859 -1.1985401 0 5
2.6192584 1.8015478 -1.2060956 0 5
2.5581143 1.8698136 -1.2021545 0 5
2.5024583 1.9416785 -1.2016913 0 5
2.4358263 2.0045168 -1.1968256 0 5
2.3874536 2.0824044 -1.2019266 0 5
2.3279326 2.1511421 -1.2025455 0 5
2.2638016 2.2156034 -1.201768 0 5
2.2028437 2.2832921 -1.2036977 0 5
2.135546 2.3445649 -1.2031952 0 5
2.0574167 2.3932369 -1.1973794 0 5
1.9957191 2.4608929 -1.2020789 0 5
1.922734 2.5150769 -1.2010984 0 5
1.8563814 2.578347 -1.2053756 0 5
1.7773837 2.624234 -1.2024865 0 5
1.6964841 2.6664574 -1.1990316 0 5
1.6185308 2.7127452 -1.1984657 0 5
1.5434606 2.764174 -1.2011231 0 5
1.4648365 2.8098166 -1.2021943 0 5
1.3838336 2.8511002 -1.2023711 0 5
1.3017327 2.890193 -1.2026079 0 5
1.2168945 2.9229991 -1.2012326 0 5
1.1359497 2.9655974 -1.2048455 0 5
1.0481492 2.9905128 -1.2022523 0 5
0.95975244 3.012512 -1.1995296 0 5
0.87514037 3.0464659 -1.202554 0 5
0.78530264 3.0621848 -1.199369 0 5
0.69768256 3.0858676 -1.2003086 0 5
0.61159807 3.1185062 -1.2056805 0 5
0.5212301 3.1308174 -1.2041613 0 5
0.43053493 3.1396036 -1.2022935 0 5
0.34032407 3.1509418 -1.2024002 0 5
0.24963668 3.1574066 -1.2016386 0 5
0.15877622 3.1596239 -1.2002542 0 5
0.067973375 3.1582637 -1.198503 0 5
-0.022737907 3.1706479 -1.2029549 0 5
-0.11349802 3.1635358 -1.2009979 0 5
-0.20443796 3.1626325 -1.2023873 0 5
-0.29477292 3.1522007 -1.2011429 0 5
-0.38473684 3.1396728 -1.2000823 0 5
-0.47472391 3.1278682 -1.2002835 0 5
-0.56573087 3.1211009 -1.2034214 0 5
-0.65154463 3.0870683 -1.197016 0 5
-0.74080938 3.0711539 -1.1985952 0 5
-0.83093637 3.0572171 -1.2019677 0 5
-0.91475707 3.0204406 -1.197337 0 5
-1.0039561 3.0017166 -1.2008415 0 5
-1.0920398 2.9781954 -1.2034738 0 5
-1.1726363 2.9346623 -1.1989875 0 5
-1.2592132 2.906451 -1.2017308 0 5
-1.3371381 2.8585877 -1.1973141 0 5
-1.4244168 2.8306322 -1.2022318 0 5
-1.5075799 2.7933283 -1.2042677 0 5
-1.5836145 2.7429118 -1.2016306 0 5
-1.6609632 2.6952453 -1.2011361 0 5
-1.7414399 2.652343 -1.2037929 0 5
-1.8176384 2.6024828 -1.2043422 0 5
-1.88465 2.5399761 -1.1999514 0 5
-1.9616592 2.4911177 -1.2029699 0 5
-2.0293453 2.4302654 -1.2012132 0 5
-2.0898616 2.3615992 -1.196425 0 5
-2.1625931 2.3069127 -1.1996678 0 5
-2.2239373 2.2399549 -1.1975446 0 5
-2.3003123 2.1876321 -1.2043688 0 5
-2.3686473 2.1266036 -1.2076964 0 5
-2.4202828 2.0506682 -1.2035222 0 5
-2.4662247 1.9708946 -1.1977485 0 5
-2.5273385 1.9035473 -1.200404 0 5
-2.5842497 1.8326362 -1.2019601 0 5
-2.6234813 1.7495621 -1.1963617 0 5
-2.6777225 1.6767977 -1.1986591 0 5
-2.7362633 1.6060678 -1.2037363 0 5
-2.7761488 1.524135 -1.2015461 0 5
-2.8170142 1.4429921 -1.2008154 0 5
-2.8638206 1.3647199 -1.2035772 0 5
-2.8945467 1.2788051 -1.2005726 0 5
-2.9314997 1.1958402 -1.2011707 0 5
-2.9795492 1.1168585 -1.2072287 0 5
-2.988729 1.0235181 -1.1985536 0 5
-3.0222621 0.93903953 -1.2006997 0 5
-3.0582657 0.85483706 -1.204761 0 5
-3.0718925 0.76435679 -1.2009934 0 5
-3.0994616 0.67743027 -1.2036756 0 5
-3.1230028 0.58925498 -1.2057542 0 5
-3.1203339 0.49651489 -1.1987288 0 5
-3.1405156 0.4077372 -1.2014921 0 5
-3.1689162 0.31929263 -1.2083545 0 5
-3.1520355 0.22647917 -1.1989455 0 5
-3.1677024 0.13641623 -1.2029204 0 5
-3.1629219 0.045384128 -1.2001164 0 5
-3.1467929 8.3502973e-06 -1.1938736 0 5
-3.5178466 -0.050476871 -1.19754 0 6
-3.5256109 -0.15182947 -1.2011719 0 6
-3.5147851 -0.25254336 -1.199459 0 6
-3.5043364 -0.3530888 -1.1988577 0 6
-3.5126729 -0.45605484 -1.2056907 0 6
-3.4937048 -0.55592656 -1.2041605 0 6
-3.4693997 -0.65461385 -1.2017635 0 6
-3.4514711 -0.75436682 -1.2025571 0 6
-3.4186747 -0.85064411 -1.1991421 0 6
-3.402899 -0.95116788 -1.2026881 0 6
-3.3637426 -1.04514 -1.1989561 0 6
-3.351948 -1.1479058 -1.2059975 0 6
-3.3158009 -1.2428995 -1.2053293 0 6
-3.2792184 -1.3376845 -1.2054898 0 6
-3.2355027 -1.4294388 -1.2040038 0 6
-3.1779652 -1.5144217 -1.1982723 0 6
-3.1402206 -1.6085519 -1.2009519 0 6
-3.0908811 -1.6969264 -1.2002128 0 6
-3.0368612 -1.7825058 -1.1986067 0 6
-2.9883726 -1.8713278 -1.200171 0 6
-2.9360933 -1.9580386 -1.2012478 0 6
-2.8732533 -2.0375848 -1.1989684 0 6
-2.8050158 -2.112689 -1.1953019 0 6
-2.7603948 -2.205982 -1.2027696 0 6
-2.6935327 -2.2821887 -1.2016791 0 6
-2.6171582 -2.34972 -1.197197 0 6
-2.5609052 -2.4354601 -1.2029414 0 6
-2.4821043 -2.4999816 -1.1991333 0 6
-2.4142056 -2.5753162 -1.2015412 0 6
-2.3344142 -2.6379502 -1.1990136 0 6
-2.2613254 -2.708076 -1.2008963 0 6
-2.1816981 -2.7705457 -1.2003396 0 6
-2.1010423 -2.8316119 -1.200179 0 6
-2.0216823 -2.8946314 -1.2018038 0 6
-1.9337217 -2.9452024 -1.199266 0 6
-1.8502904 -3.0024667 -1.2004673 0 6
-1.7629125 -3.0534666 -1.2001362 0 6
-1.6834692 -3.1192257 -1.2064967 0 6
-1.5845168 -3.1487863 -1.1998481 0 6
-1.4960761 -3.1983719 -1.2018875 0 6
-1.4048092 -3.2425082 -1.2028282 0 6
-1.3114673 -3.2821035 -1.2030593 0 6
-1.2164608 -3.3175149 -1.2027478 0 6
-1.1217856 -3.3540142 -1.2038134 0 6
-1.0229279 -3.3776104 -1.2012515 0 6
-0.92679292 -3.4098969 -1.2027795 0 6
-0.82509941 -3.4205925 -1.1977069 0 6
-0.73052096 -3.4612641 -1.2041115 0 6
-0.6277597 -3.4633098 -1.1980627 0 6
-0.52832282 -3.4810212 -1.1984512 0 6
-0.43070424 -3.5147929 -1.2053264 0 6
-0.33048496 -3.5340929 -1.2081951 0 6
-0.22814825 -3.5294282 -1.2038664 0 6
-0.12652619 -3.5266705 -1.2011926 0 6
-0.025325444 -3.5314622 -1.2020823 0 6
0.076196685 -3.5403452 -1.205354 0 6
0.17677727 -3.5178421 -1.1989262 0 6
0.27724719 -3.5066245 -1.1973218 0 6
0.37834373 -3.5029526 -1.1992817 0 6
0.47949165 -3.4966123 -1.2013276 0 6
0.57926649 -3.4794183 -1.2006372 0 6
0.68038338 -3.4692388 -1.2033669 0 6
0.77925789 -3.4466772 -1.2028029 0 6
0.87654245 -3.4179623 -1.2010663 0 6
0.9766587 -3.399863 -1.2040596 0 6
1.0672492 -3.3499274 -1.1967291 0 6
1.1670171 -3.329659 -1.2009585 0 6
1.2623501 -3.2955878 -1.2012415 0 6
1.3524011 -3.2484882 -1.1977273 0 6
1.4527656 -3.2255266 -1.2041374 0 6
1.5354103 -3.1633923 -1.1968986 0 6
1.6369599 -3.1399801 -1.2053186 0 6
1.7229147 -3.0855575 -1.2029124 0 6
1.809642 -3.0330579 -1.2021968 0 6
1.8916702 -2.973242 -1.1995118 0 6
1.9772803 -2.919373 -1.2001776 0 6
2.0622423 -2.8642695 -1.2013599 0 6
2.1380148 -2.7966797 -1.1982526 0 6
2.2178626 -2.7348149 -1.1985233 0 6
2.2990234 -2.6742797 -1.2004143 0 6
2.369633 -2.6015637 -1.1978061 0 6
2.4434965 -2.5327339 -1.1979088 0 6
2.5197062 -2.4660597 -1.2000808 0 6
2.5933914 -2.396441 -1.2019252 0 6
2.6711464 -2.3298492 -1.2064767 0 6
2.7183888 -2.2370462 -1.1983244 0 6
2.7810977 -2.157877 -1.1981758 0 6
2.8394003 -2.0754154 -1.1971409 0 6
2.911931 -2.0028505 -1.2029921 0 6
2.9592662 -1.9127275 -1.1993765 0 6
3.027354 -1.8358039 -1.2051232 0 6
3.0736229 -1.7452816 -1.2031082 0 6
3.1290042 -1.659883 -1.2056438 0 6
3.1525218 -1.5581657 -1.1969827 0 6
3.1984658 -1.4682573 -1.1979352 0 6
3.2491188 -1.3800846 -1.201578 0 6
3.2735684 -1.2809104 -1.1965328 0 6
3.3349373 -1.1957887 -1.2059243 0 6
3.3536131 -1.0949751 -1.2008201 0 6
3.3908987 -1.0004619 -1.2033948 0 6
3.4073536 -0.89991224 -1.1995753 0 6
3.4339364 -0.80230421 -1.2003337 0 6
3.4595068 -0.70427465 -1.2017121 0 6
3.4717491 -0.60360754 -1.1994537 0 6
3.4940436 -0.50469279 -1.2016575 0 6
3.5099475 -0.40458375 -1.2026389 0 6
3.5018861 -0.30215722 -1.196413 0 6
3.520411 -0.20222543 -1.2002652 0 6
3.5299563 -0.10130337 -1.2020334 0 6
3.5290828 0 -1.2012414 0 6
3.5313532 0.10134346 -1.2025092 0 6
3.5304337 0.20280117 -1.2036823 0 6
3.5117614 0.3030093 -1.1997869 0 6
3.5021956 0.40369025 -1.1999828 0 6
3.5016689 0.50579423 -1.20428 0 6
3.4777093 0.60464382 -1.2015129 0 6
3.4551413 0.70338601 -1.2001958 0 6
3.4341331 0.80235016 -1.2004025 0 6
3.4043279 0.89911312 -1.1985101 0 6
3.3871605 0.99935907 -1.2020682 0 6
3.3476121 1.0930158 -1.1986713 0 6
3.3200288 1.1904432 -1.2005333 0 6
3.2864556 1.2859529 -1.2012434 0 6
3.2313273 1.3725276 -1.1949985 0 6
3.2085426 1.4728831 -1.2017093 0 6
3.1635268 1.5636048 -1.2011611 0 6
3.1235192 1.6569732 -1.2035303 0 6
3.0627518 1.7391086 -1.1988529 0 6
3.0105596 1.8256197 -1.1984377 0 6
2.9748008 1.9227682 -1.2056725 0 6
2.9111044 2.0022821 -1.2026505 0 6
2.8599641 2.090446 -1.2058109 0 6
2.7791643 2.1563768 -1.1973429 0 6
2.723376 2.2411504 -1.2005229 0 6
2.6603565 2.3204381 -1.2016033 0 6
2.5801287 2.3841856 -1.1957786 0 6
2.5258515 2.472074 -1.2030077 0 6
2.4518611 2.5414038 -1.2020094 0 6
2.3764434 2.6090407 -1.2012486 0 6
2.2966909 2.6715665 -1.1991963 0 6
2.2134299 2.7293491 -1.196128 0 6
2.1458192 2.8068888 -1.2026266 0 6
2.0661423 2.8696861 -1.2036319 0 6
1.9800361 2.9234419 -1.2018504 0 6
1.8949639 2.9784191 -1.2016003 0 6
1.8059089 3.0268011 -1.1997169 0 6
1.7220747 3.0840533 -1.2023261 0 6
1.6329339 3.1322572 -1.2023541 0 6
1.5415118 3.1759634 -1.2016549 0 6
1.4432716 3.2044475 -1.1962683 0 6
1.3564636 3.2582462 -1.2013252 0 6
1.2612936 3.2928295 -1.2002361 0 6
1.1715593 3.3426187 -1.2056328 0 6
1.073421 3.3692999 -1.2036498 0 6
0.97306794 3.3873632 -1.1996328 0 6
0.87465841 3.4106157 -1.1984847 0 6
0.78101718 3.4544585 -1.2055185 0 6
0.67766386 3.4553721 -1.198557 0 6
0.57868797 3.4759433 -1.1994382 0 6
0.48033243 3.5027437 -1.203434 0 6
0.38045341 3.5224855 -1.205969 0 6
0.27813685 3.5178771 -1.201164 0 6
0.17699499 3.5221746 -1.2004027 0 6
0.0757953 3.5216956 -1.1990045 0 6
-0.02526401 3.5228956 -1.1991663 0 6
-0.12640318 3.523242 -1.2000248 0 6
-0.22747867 3.5190699 -1.2003332 0 6
-0.32860968 3.5140393 -1.2013394 0 6
-0.42850444 3.4968414 -1.1991702 0 6
-0.52989924 3.4914081 -1.2020272 0 6
-0.62651187 3.4564254 -1.1956811 0 6
-0.72762746 3.4475543 -1.1993421 0 6
-0.82935637 3.4382405 -1.2038864 0 6
-0.92480308 3.4025755 -1.2001972 0 6
-1.0230721 3.3780868 -1.2014209 0 6
-1.116536 3.3383183 -1.19818 0 6
-1.2140913 3.3110528 -1.200405 0 6
-1.3098441 3.2780414 -1.2015704 0 6
-1.4032474 3.2389033 -1.2014909 0 6
-1.4960769 3.1983736 -1.2018882 0 6
-1.5824405 3.1446602 -1.1982758 0 6
-1.6741399 3.1019397 -1.1998106 0 6
-1.7696767 3.0651824 -1.204741 0 6
-1.8525745 3.0061729 -1.2019492 0 6
-1.9365858 2.9495647 -1.2010423 0 6
-2.019109 2.8909471 -1.2002742 0 6
-2.1029913 2.8342388 -1.2012924 0 6
-2.1827812 2.7719212 -1.2009354 0 6
-2.2676771 2.7156823 -1.2042693 0 6
-2.3366883 2.6405199 -1.2001815 0 6
-2.4047353 2.5652142 -1.1968279 0 6
-2.4747899 2.4926145 -1.1955996 0 6
-2.5550129 2.4298563 -1.2001736 0 6
-2.6204648 2.3526888 -1.1987095 0 6
-2.6892104 2.2785263 -1.1997508 0 6
-2.7473605 2.1955655 -1.1970903 0 6
-2.8133991 2.1190033 -1.1988742 0 6
-2.8783073 2.0411689 -1.2010773 0 6
-2.9410832 1.9613663 -1.2032894 0 6
-2.9943361 1.8750621 -1.202566 0 6
-3.0382626 1.7833284 -1.1991599 0 6
-3.0963938 1.6999528 -1.2023534 0 6
-3.1448853 1.6109413 -1.2027359 0 6
-3.190573 1.5204298 -1.2030262 0 6
-3.2282715 1.426244 -1.2013129 0 6
-3.273283 1.3352631 -1.2033077 0 6
-3.2973065 1.2359672 -1.1986064 0 6
-3.3379259 1.1431038 -1.2009525 0 6
-3.3741014 1.0483587 -1.2026484 0 6
-3.4062371 0.95210093 -1.2038679 0 6
-3.4125857 0.84912902 -1.1970063 0 6
-3.457428 0.75566876 -1.2046325 0 6
-3.467463 0.65424848 -1.2010926 0 6
-3.4794021 0.55365068 -1.1992308 0 6
-3.4992883 0.45431712 -1.2010967 0 6
-3.5050211 0.35315779 -1.1990919 0 6
-3.5127673 0.25239837 -1.1987704 0 6
-3.5301511 0.152025 -1.2027189 0 6
-3.5367727 0.050748438 -1.2039828 0 6
-3.5289743 9.3644503e-06 -1.2012045 0 6
-3.9590213 -0.056807198 -1.1968561 0 7
-3.9729154 -0.17109251 -1.2020459 0 7
-3.9619465 -0.28467268 -1.2007047 0 7
-3.9559765 -0.39859501 -1.2018673 0 7
-3.9416628 -0.51175117 -1.2014859 0 7
-3.919548 -0.62368774 -1.1997068 0 7
-3.915678 -0.73881865 -1.2045162 0 7
-3.8783491 -0.84766692 -1.2000223 0 7
-3.8511839 -0.95826221 -1.1996322 0 7
-3.8257785 -1.0693698 -1.2007836 0 7
-3.790225 -1.1776514 -1.1997383 0 7
-3.7623327 -1.2884458 -1.2021186 0 7
-3.7106915 -1.390921 -1.1978793 0 7
-3.6758256 -1.4994715 -1.2000215 0 7
-3.6353433 -1.6060877 -1.2013582 0 7
-3.5837083 -1.7077739 -1.1999967 0 7
-3.5422499 -1.8144881 -1.2030555 0 7
-3.4771304 -1.9089813 -1.1990516 0 7
-3.4295449 -2.0129941 -1.2020686 0 7
-3.3674483 -2.108706 -1.2010201 0 7
-3.3101523 -2.2074931 -1.2026845 0 7
-3.2477369 -2.3031521 -1.2035264 0 7
-3.1858847 -2.3995528 -1.2056279 0 7
-3.1045451 -2.4810112 -1.2012964 0 7
-3.0379126 -2.5739763 -1.2036009 0 7
-2.959255 -2.6568592 -1.2021509 0 7
-2.8772042 -2.7362652 -1.2002249 0 7
-2.8011384 -2.8213136 -1.2017745 0 7
-2.7185681 -2.8999903 -1.2015605 0 7
-2.6364262 -2.9792316 -1.2025489 0 7
-2.5434861 -3.0459807 -1.1995345 0 7
-2.4619365 -3.1264215 -1.2028937 0 7
-2.3698468 -3.1938846 -1.2021883 0 7
-2.2781441 -3.2618318 -1.20266 0 7
-2.1809661 -3.3217742 -1.2011893 0 7
-2.0850508 -3.3834126 -1.201346 0 7
-1.9893494 -3.4456682 -1.2026848 0 7
-1.8794892 -3.4824224 -1.1961944 0 7
-1.7828397 -3.5428979 -1.1988991 0 7
-1.6812118 -3.5941627 -1.1994263 0 7
-1.5790311 -3.6446381 -1.2006539 0 7
-1.4743166 -3.6896532 -1.2010505 0 7
-1.3688211 -3.7330296 -1.2018883 0 7
-1.258167 -3.7617793 -1.1990259 0 7
-1.1544647 -3.8119326 -1.2039558 0 7
-1.0433215 -3.8386338 -1.2024374 0 7
-0.93309957 -3.8683262 -1.202855 0 7
-0.82009029 -3.8856504 -1.2004294 0 7
-0.70844555 -3.9084485 -1.2006973 0 7
-0.59467191 -3.9181831 -1.1979518 0 7
-0.48339492 -3.9447792 -1.2013474 0 7
-0.36967531 -3.9531813 -1.2001811 0 7
-0.25653794 -3.9686136 -1.2021363 0 7
-0.14228353 -3.9658756 -1.1995761 0 7
-0.028390802 -3.9589059 -1.1967288 0 7
0.085433617 -3.969523 -1.2001853 0 7
0.19953062 -3.9706304 -1.2017567 0 7
0.31282344 -3.9565933 -1.1997313 0 7
0.42743215 -3.9574449 -1.2032137 0 7
0.53975677 -3.9360859 -1.2009349 0 7
0.65316504 -3.9232969 -1.202257 0 7
0.76606411 -3.9061203 -1.203235 0 7
0.87310416 -3.8617616 -1.1967964 0 7
0.98990762 -3.8600149 -1.2045634 0 7
1.0960706 -3.8155503 -1.2000095 0 7
1.2074021 -3.7898455 -1.202328 0 7
1.3147473 -3.7511535 -1.2015283 0 7
1.4216605 -3.7114956 -1.2013992 0 7
1.5268346 -3.66748 -1.2008407 0 7
1.6336249 -3.6270823 -1.2024688 0 7
1.7337617 -3.5720539 -1.2002267 0 7
1.8360224 -3.5218172 -1.2005569 0 7
1.9345605 -3.4645927 -1.1994815 0 7
2.0404408 -3.4198892 -1.2037821 0 7
2.1361859 -3.3575611 -1.2029265 0 7
2.2295039 -3.2917707 -1.2017841 0 7
2.3129742 -3.2125134 -1.1965895 0 7
2.4116571 -3.154624 -1.2003121 0 7
2.5037172 -3.0872982 -1.2015396 0 7
2.5931301 -3.0163918 -1.2024113 0 7
2.6770568 -2.9390769 -1.201722 0 7
2.7561686 -2.8568246 -1.1999379 0 7
2.8499124 -2.7892356 -1.2054052 0 7
2.9203057 -2.6985283 -1.2019286 0 7
2.9873745 -2.6056724 -1.1982622 0 7
3.0804307 -2.5349817 -1.205911 0 7
3.1416013 -2.4375949 -1.2019775 0 7
3.2119322 -2.3477116 -1.2026132 0 7
3.2813146 -2.2569158 -1.2038449 0 7
3.3481262 -2.1640677 -1.2050755 0 7
3.4005258 -2.0620973 -1.2021407 0 7
3.4586868 -1.9639306 -1.202282 0 7
3.5057173 -1.8597229 -1.1995841 0 7
3.5512431 -1.7552376 -1.1974328 0 7
3.6075101 -1.6560293 -1.1998864 0 7
3.6515369 -1.5510144 -1.1992315 0 7
3.7083457 -1.4510338 -1.203717 0 7
3.7285018 -1.3369069 -1.197313 0 7
3.7782371 -1.2336174 -1.2014209 0 7
3.8193755 -1.1268812 -1.2037233 0 7
3.8371761 -1.0134323 -1.1996734 0 7
3.8815682 -0.90688878 -1.2049192 0 7
3.8997643 -0.79390079 -1.2029999 0 7
3.9070208 -0.67928505 -1.1987313 0 7
3.9279237 -0.5673641 -1.1996551 0 7
3.9409976 -0.45426995 -1.1991727 0 7
3.9494424 -0.34077421 -1.1982732 0 7
3.9745817 -0.22831467 -1.2034172 0 7
3.9802668 -0.11422647 -1.2036504 0 7
3.9803057 0 -1.2031668 0 7
3.970628 0.11394985 -1.2007356 0 7
3.975487 0.22836667 -1.2036912 0 7
3.958174 0.34152761 -1.2009224 0 7
3.9487026 0.45515808 -1.2015172 0 7
3.9343514 0.56829256 -1.2016182 0 7
3.9155841 0.68077391 -1.2013587 0 7
3.8859317 0.79108483 -1.1987329 0 7
3.8691695 0.90399194 -1.2010704 0 7
3.8535459 1.0177556 -1.2047913 0 7
3.8204565 1.1272001 -1.2040639 0 7
3.785445 1.2359709 -1.2037129 0 7
3.7470572 1.3435602 -1.2032715 0 7
3.7054133 1.4498863 -1.2027652 0 7
3.6569211 1.5533015 -1.2009999 0 7
3.6093819 1.6568886 -1.2005091 0 7
3.5558045 1.7574921 -1.1989708 0 7
3.5126383 1.8633943 -1.2019523 0 7
3.4608963 1.9651852 -1.2030499 0 7
3.3989806 2.0611603 -1.2015945 0 7
3.3408608 2.1593719 -1.2024605 0 7
3.2703998 2.2494082 -1.1998404 0 7
3.2121868 2.3478978 -1.2027086 0 7
3.123632 2.4236522 -1.1951023 0 7
3.067698 2.5245037 -1.2009265 0 7
2.9922121 2.6098919 -1.2002027 0 7
2.9269869 2.7047024 -1.2046784 0 7
2.8424802 2.7819614 -1.2022616 0 7
2.7612214 2.8620622 -1.2021377 0 7
2.6767058 2.9386916 -1.2015644 0 7
2.5937269 3.0170858 -1.202688 0 7
2.4988468 3.0812924 -1.1992023 0 7
2.4143517 3.158149 -1.2016532 0 7
2.3226559 3.2259607 -1.2015983 0 7
2.2235792 3.2830231 -1.1985905 0 7
2.1318905 3.3508096 -1.2005078 0 7
2.0325694 3.4066963 -1.1991383 0 7
1.9383003 3.4712901 -1.2018002 0 7
1.8333169 3.5166276 -1.1987878 0 7
1.7321351 3.5687025 -1.1991006 0 7
1.6316826 3.6227698 -1.2010392 0 7
1.5293165 3.6734414 -1.2027926 0 7
1.4235413 3.7164059 -1.2029886 0 7
1.3123225 3.744235 -1.1993123 0 7
1.2056119 3.7842264 -1.2005453 0 7
1.0952148 3.8125708 -1.1990725 0 7
0.98811418 3.8530216 -1.202381 0 7
0.87643039 3.8764734 -1.2013558 0 7
0.76118326 3.8812332 -1.1955688 0 7
0.65158945 3.9138329 -1.1993568 0 7
0.5395484 3.9345663 -1.2004713 0 7
0.42820564 3.9646065 -1.2053912 0 7
0.31259793 3.9537408 -1.1988665 0 7
0.19959001 3.9718125 -1.2021145 0 7
0.08556433 3.9755962 -1.2020215 0 7
-0.028422154 3.9632776 -1.1980504 0 7
-0.14260326 3.9747872 -1.2022717 0 7
-0.25567397 3.9552481 -1.1980877 0 7
-0.37107781 3.968179 -1.2047344 0 7
-0.48519227 3.9594467 -1.2058142 0 7
-0.59541613 3.9230869 -1.1994511 0 7
-0.70806092 3.9063268 -1.2000455 0 7
-0.81901914 3.8805752 -1.1988615 0 7
-0.92880321 3.8505147 -1.1973165 0 7
-1.0460795 3.8487811 -1.205616 0 7
-1.1528263 3.8065226 -1.2022471 0 7
-1.2642037 3.7798281 -1.2047787 0 7
-1.3738581 3.7467666 -1.206311 0 7
-1.4767362 3.6957085 -1.2030216 0 7
-1.5739769 3.6329722 -1.1968108 0 7
-1.6826932 3.5973296 -1.2004831 0 7
-1.7866789 3.5505273 -1.2014809 0 7
-1.8857366 3.4939981 -1.2001705 0 7
-1.9814644 3.4320109 -1.1979178 0 7
-2.0793672 3.3741894 -1.1980711 0 7
-2.181869 3.3231492 -1.2016865 0 7
-2.277986 3.2616055 -1.2025765 0 7
-2.3631418 3.1848478 -1.1987869 0 7
-2.4585278 3.122093 -1.2012283 0 7
-2.5491602 3.0527756 -1.2022104 0 7
-2.6325347 2.9748342 -1.200774 0 7
-2.7195034 2.9009881 -1.2019738 0 7
-2.8035085 2.8237007 -1.2027913 0 7
-2.8799386 2.7388654 -1.2013655 0 7
-2.9594829 2.657064 -1.2022436 0 7
-3.033031 2.5698402 -1.2016668 0 7
-3.0960486 2.474221 -1.1980088 0 7
-3.1772318 2.3930357 -1.2023535 0 7
-3.2458014 2.3017795 -1.2028091 0 7
-3.3101799 2.2075114 -1.2026945 0 7
-3.375752 2.1139059 -1.2039816 0 7
-3.4175889 2.0059764 -1.1978779 0 7
-3.4927037 1.9175313 -1.204422 0 7
-3.5398457 1.8132565 -1.2022389 0 7
-3.5860977 1.7089125 -1.2007967 0 7
-3.6331177 1.6051043 -1.2006227 0 7
-3.6858251 1.5035505 -1.2032859 0 7
-3.7245779 1.3961262 -1.2023622 0 7
-3.7581315 1.2870072 -1.2007762 0 7
-3.7889547 1.1772566 -1.1993361 0 7
-3.8386796 1.0729759 -1.2048328 0 7
-3.8465428 0.95710742 -1.1981865 0 7
-3.8916414 0.85057211 -1.2041352 0 7
-3.9133625 0.73838174 -1.2038038 0 7
-3.9292119 0.62522542 -1.2026646 0 7
-3.9280291 0.5099811 -1.19733 0 7
-3.9488351 0.39787546 -1.1996976 0 7
-3.9662721 0.28498349 -1.2020156 0 7
-3.9706299 0.17099409 -1.2013545 0 7
-3.9736242 0.05701673 -1.2012708 0 7
-3.9817028 1.0565805e-05 -1.2035891 0 7
-4.5403166 -0.065148085 -1.2031451 0 8
-4.532867 -0.19520667 -1.2021605 0 8
-4.5147877 -0.32439527 -1.1993409 0 8
-4.4968181 -0.45308894 -1.1975286 0 8
-4.4854407 -0.58235055 -1.1984558 0 8
-4.4792552 -0.71274972 -1.2017736 0 8
-4.4550552 -0.84058952 -1.2012585 0 8
-4.4261055 -0.96738666 -1.200444 0 8
-4.4011407 -1.095104 -1.2017021 0 8
-4.3755994 -1.2230542 -1.2038163 0 8
-4.3370886 -1.347566 -1.2033654 0 8
-4.2892866 -1.4689062 -1.2013041 0 8
-4.2444639 -1.5910009 -1.2010437 0 8
-4.1973219 -1.7122045 -1.2011138 0 8
-4.136898 -1.8276734 -1.1983389 0 8
-4.097178 -1.9524617 -1.2025689 0 8
-4.0270867 -2.0628419 -1.1988786 0 8
-3.9714115 -2.180347 -1.2004375 0 8
-3.9146709 -2.2977419 -1.2027234 0 8
-3.8318741 -2.3995309 -1.1979489 0 8
-3.7652292 -2.5109773 -1.1991483 0 8
-3.6891758 -2.6162012 -1.1983451 0 8
-3.6196384 -2.7262485 -1.200677 0 8
-3.5403082 -2.8292532 -1.2008011 0 8
-3.4699502 -2.9400351 -1.2050588 0 8
-3.3654447 -3.0215418 -1.1983862 0 8
-3.2861996 -3.1252258 -1.2016102 0 8
-3.1923239 -3.2153163 -1.2005302 0 8
-3.0967631 -3.3034239 -1.199751 0 8
-3.0067089 -3.397661 -1.2021433 0 8
-2.904609 -3.4784474 -1.2007395 0 8
-2.8021457 -3.5584543 -1.200104 0 8
-2.7011092 -3.6403325 -1.2010803 0 8
-2.6007369 -3.7237182 -1.2034715 0 8
-2.4867268 -3.7874703 -1.2005171 0 8
-2.3749449 -3.8538237 -1.1994516 0 8
-2.2671318 -3.9268034 -1.2014211 0 8
-2.1483152 -3.9805186 -1.1984991 0 8
-2.0409889 -4.0558977 -1.2030641 0 8
-1.9175851 -4.0994911 -1.1991776 0 8
-1.8035362 -4.1628294 -1.2020701 0 8
-1.6817942 -4.2088909 -1.2009395 0 8
-1.5593967 -4.2527647 -1.200195 0 8
-1.4350898 -4.2907586 -1.1988009 0 8
-1.3168428 -4.3480897 -1.2037646 0 8
-1.1863217 -4.3647661 -1.1984627 0 8
-1.0632285 -4.4077978 -1.2014055 0 8
-0.93864733 -4.4473829 -1.2043568 0 8
-0.80828053 -4.4592314 -1.2007896 0 8
-0.68191689 -4.4930243 -1.2041239 0 8
-0.55198741 -4.5045333 -1.2024678 0 8
-0.42172113 -4.5097413 -1.2001332 0 8
-0.29142871 -4.5083699 -1.1970496 0 8
-0.1617832 -4.5093908 -1.1955957 0 8
-0.032448918 -4.5247827 -1.1989361 0 8
0.097633824 -4.5363841 -1.2022576 0 8
0.22770931 -4.5313821 -1.2021689 0 8
0.35736039 -4.519897 -1.2013482 0 8
0.48636663 -4.5030985 -1.2000991 0 8
0.61581713 -4.4907432 -1.2010217 0 8
0.74526477 -4.4765024 -1.2024381 0 8
0.87152731 -4.4438715 -1.1998974 0 8
1.0035667 -4.4388008 -1.2058083 0 8
1.1276127 -4.3969779 -1.2027426 0 8
1.2536014 -4.3639331 -1.2030491 0 8
1.3762906 -4.3199596 -1.2013204 0 8
1.4981468 -4.2744169 -1.2001177 0 8
1.6228409 -4.2367125 -1.2021127 0 8
1.7434535 -4.1878018 -1.2019365 0 8
1.8637516 -4.1380248 -1.2025061 0 8
1.9760597 -4.0712585 -1.1990896 0 8
2.0982218 -4.0247622 -1.2026352 0 8
2.2089384 -3.9559741 -1.2005287 0 8
2.3220787 -3.8919296 -1.2008219 0 8
2.4302382 -3.8197393 -1.1995729 0 8
2.5440328 -3.7561598 -1.2020394 0 8
2.6445723 -3.6730733 -1.1992441 0 8
2.7514734 -3.5991287 -1.2003882 0 8
2.8527396 -3.5176725 -1.2000316 0 8
2.9618556 -3.4453022 -1.2038444 0 8
3.0480175 -3.3463459 -1.1993381 0 8
3.1564238 -3.2716973 -1.2045534 0 8
3.2438414 -3.1747773 -1.202649 0 8
3.3283312 -3.0755672 -1.2007557 0 8
3.4136381 -2.9774716 -1.2002106 0 8
3.4952211 -2.8763256 -1.1993784 0 8
3.5948322 -2.7892606 -1.2055955 0 8
3.6623747 -2.6769555 -1.201988 0 8
3.7262421 -2.5629406 -1.1983162 0 8
3.8150661 -2.4658754 -1.2036279 0 8
3.8755758 -2.3501701 -1.2009453 0 8
3.9433389 -2.2391284 -1.2015363 0 8
4.0044508 -2.1242924 -1.2010872 0 8
4.0574222 -2.0054216 -1.1992195 0 8
4.131412 -1.8965268 -1.2045057 0 8
4.1691957 -1.7708933 -1.2002103 0 8
4.2281322 -1.6544204 -1.2030135 0 8
4.2761588 -1.533277 -1.203663 0 8
4.3067117 -1.4061676 -1.2004098 0 8
4.3512807 -1.2838163 -1.2020683 0 8
4.3855515 -1.158263 -1.2018582 0 8
4.4247789 -1.0338044 -1.2039821 0 8
4.4489226 -0.90569663 -1.202984 0 8
4.4599395 -0.77541703 -1.199452 0 8
4.4908805 -0.64867967 -1.2022716 0 8
4.4956641 -0.51820511 -1.1990772 0 8
4.5085335 -0.3890149 -1.1990385 0 8
4.5187988 -0.25957653 -1.1992936 0 8
1.7009701 -0.04881477 -0.45088169 0 8
1.6710596 0 -0.44277093 0 8
1.6794347 0.04819674 -0.44517323 0 8
1.682223 0.096633106 -0.44646361 0 8
1.6839906 0.14530167 -0.44785509 0 8
1.6639991 0.19180544 -0.44381952 0 8
1.667625 0.24087803 -0.4464466 0 8
1.6587827 0.28840038 -0.44611144 0 8
1.6580346 0.33753708 -0.44833082 0 8
1.6704032 0.39027268 -0.45451668 0 8
1.6656837 0.43992183 -0.45647979 0 8
4.3456979 1.2821691 -1.200526 0 8
4.321547 1.4110115 -1.2045448 0 8
4.2584643 1.5269324 -1.1986822 0 8
4.2212682 1.6517345 -1.2010604 0 8
4.1864319 1.7782146 -1.2051723 0 8
4.121707 1.8920717 -1.2016762 0 8
4.0728226 2.0130336 -1.2037714 0 8
4.0056658 2.1249368 -1.2014515 0 8
3.9383607 2.2363017 -1.2000195 0 8
3.8664589 2.3446417 -1.1981201 0 8
3.8109159 2.4631929 -1.2023185 0 8
3.7456477 2.5762877 -1.2045568 0 8
3.6698284 2.6824038 -1.2044343 0 8
3.5732489 2.7725139 -1.1983571 0 8
3.4997869 2.8800828 -1.2009451 0 8
3.4106586 2.9748726 -1.199163 0 8
3.3282275 3.0754714 -1.2007182 0 8
3.2321758 3.1633601 -1.198324 0 8
3.1532118 3.2683682 -1.2033277 0 8
3.0446384 3.3426361 -1.1980085 0 8
2.9550354 3.4373686 -1.2010723 0 8
2.8556235 3.5212288 -1.2012447 0 8
2.7482219 3.5948753 -1.1989696 0 8
2.6426835 3.67045 -1.1983876 0 8
2.54318 3.7549007 -1.2016364 0 8
2.4253702 3.812088 -1.19717 0 8
2.3235104 3.8943293 -1.2015622 0 8
2.2152596 3.9672947 -1.2039642 0 8
2.0944834 4.017591 -1.2004924 0 8
1.9815116 4.0824909 -1.2023981 0 8
1.8654276 4.141746 -1.2035874 0 8
1.7447609 4.1909423 -1.2028378 0 8
1.6231848 4.2376103 -1.2023674 0 8
1.5014633 4.2838798 -1.2027745 0 8
1.3763702 4.3202095 -1.2013899 0 8
1.2501119 4.3517857 -1.1997002 0 8
1.1285658 4.4006944 -1.2037591 0 8
0.99947053 4.4206829 -1.2008865 0 8
0.87170237 4.4447641 -1.2001383 0 8
0.74485862 4.4740629 -1.2017828 0 8
0.61646068 4.4954362 -1.2022768 0 8
0.4870618 4.5095353 -1.2018144 0 8
0.35728359 4.5189257 -1.20109 0 8
0.22759296 4.529067 -1.2015548 0 8
0.097573861 4.5335979 -1.2015193 0 8
-0.032585099 4.5437722 -1.2039678 0 8
-0.16293034 4.5413647 -1.2040732 0 8
-0.29259637 4.5264335 -1.2018459 0 8
-0.42168695 4.5093756 -1.2000359 0 8
-0.54996586 4.4880362 -1.1980639 0 8
-0.67925161 4.4754634 -1.1994175 0 8
-0.80879188 4.4620528 -1.2015493 0 8
-0.93658328 4.437603 -1.2017086 0 8
-1.0615801 4.4009643 -1.1995429 0 8
-1.1884332 4.3725348 -1.2005959 0 8
-1.3115573 4.330637 -1.1989329 0 8
-1.4431759 4.3149352 -1.2055556 0 8
-1.5637935 4.2647557 -1.2035788 0 8
-1.6829529 4.2117906 -1.201767 0 8
-1.797479 4.1488485 -1.198033 0 8
-1.9170351 4.0983148 -1.1988336 0 8
-2.0334399 4.0408959 -1.1986142 0 8
-2.15025 3.9841032 -1.1995784 0 8
-2.2636271 3.920733 -1.1995637 0 8
-2.3757205 3.8550825 -1.1998434 0 8
-2.4881816 3.7896862 -1.2012193 0 8
-2.594466 3.7147393 -1.2005696 0 8
-2.7068036 3.6480072 -1.2036124 0 8
-2.800735 3.5566628 -1.1994997 0 8
-2.9098468 3.48472 -1.2029048 0 8
-3.0058467 3.3966866 -1.2017986 0 8
-3.1065712 3.3138866 -1.2035509 0 8
-3.2015581 3.224617 -1.2040029 0 8
-3.2954495 3.1340227 -1.2049924 0 8
-3.3721769 3.027586 -1.2007835 0 8
-3.4545703 2.9270039 -1.1997175 0 8
-3.5412805 2.8300302 -1.2011309 0 8
-3.617645 2.7247472 -1.2000158 0 8
-3.6867473 2.6144791 -1.1975563 0 8
-3.773864 2.5167358 -1.2018983 0 8
-3.8520625 2.4121728 -1.2042603 0 8
-3.9073865 2.2934663 -1.2004853 0 8
-3.9871688 2.1889977 -1.2052004 0 8
-4.026021 2.0622959 -1.1985613 0 8
-4.0981402 1.9529204 -1.2028514 0 8
-4.1378422 1.8280905 -1.1986123 0 8
-4.1989131 1.7128534 -1.2015691 0 8
-4.2520394 1.5938405 -1.2031872 0 8
-4.2849808 1.4674315 -1.200098 0 8
-4.3282375 1.3448159 -1.2009096 0 8
-4.3654675 1.220222 -1.2010288 0 8
-4.416163 1.0988419 -1.2058039 0 8
-4.4470344 0.97196096 -1.2061204 0 8
-4.4590011 0.84133399 -1.2023224 0 8
-4.4726567 0.71169966 -1.2000033 0 8
-4.4818754 0.5818876 -1.1975032 0 8
-4.5205994 0.45548508 -1.2038616 0 8
-4.5200148 0.32477081 -1.2007295 0 8
-4.5310884 0.19513008 -1.2016889 0 8
-4.5274968 0.064964138 -1.199748 0 8
-4.5315971 1.2025e-05 -1.2007109 0 8
-5.2773576 -0.075723737 -1.2050785 0 9
-5.2453609 -0.22589003 -1.198759 0 9
-5.2641459 -0.37823796 -1.2050365 0 9
-5.2451096 -0.52848506 -1.2036551 0 9
-5.2153258 -0.67711246 -1.2007852 0 9
-5.1903267 -0.82589698 -1.1999924 0 9
-5.1720223 -0.9758684 -1.2017405 0 9
-5.135664 -1.1224706 -1.2002833 0 9
-5.1150084 -1.2727305 -1.2034967 0 9
-5.0647168 -1.415674 -1.2007284 0 9
-5.0300636 -1.5628785 -1.2026511 0 9
-4.9869456 -1.707826 -1.2035648 0 9
-4.9301476 -1.8480237 -1.2021617 0 9
-4.8713112 -1.9871434 -1.201226 0 9
-4.8094654 -2.1248126 -1.2005178 0 9
-4.7473459 -2.2622917 -1.2007234 0 9
-4.6765079 -2.3955023 -1.1997005 0 9
-4.6039758 -2.5276313 -1.1992084 0 9
-4.5320325 -2.6601064 -1.1998597 0 9
-4.4594593 -2.7925265 -1.2013685 0 9
-4.3735151 -2.9166346 -1.2002703 0 9
-4.2922721 -3.0438905 -1.2014529 0 9
-4.1969919 -3.1611013 -1.199682 0 9
-4.1123838 -3.2864301 -1.2019616 0 9
-4.0154181 -3.4022017 -1.201663 0 9
-3.9197874 -3.5192382 -1.2027735 0 9
-3.8126531 -3.6258912 -1.2013344 0 9
-3.7053328 -3.7320201 -1.2007713 0 9
-3.6046135 -3.8451655 -1.2033967 0 9
-3.4834127 -3.9363489 -1.2001535 0 9
-3.3764038 -4.0434508 -1.2027696 0 9
-3.2573011 -4.1364579 -1.2021344 0 9
-3.1345689 -4.224514 -1.2010877 0 9
-3.0073888 -4.3059597 -1.199212 0 9
-2.881223 -4.3883176 -1.1986271 0 9
-2.7579515 -4.4753284 -1.2002805 0 9
-2.619118 -4.5364642 -1.1960257 0 9
-2.4978061 -4.6280746 -1.2007853 0 9
-2.3631408 -4.696085 -1.2003411 0 9
-2.2272539 -4.7615137 -1.200233 0 9
-2.0870235 -4.8171601 -1.198669 0 9
-1.9549814 -4.8925743 -1.2029785 0 9
-1.8059684 -4.9252114 -1.1977668 0 9
-1.6697227 -4.9922848 -1.2019303 0 9
-1.5265706 -5.0405908 -1.2025176 0 9
-1.3800937 -5.0777006 -1.2014276 0 9
-1.233246 -5.1126351 -1.2008249 0 9
-1.0889671 -5.1596093 -1.204022 0 9
-0.93915445 -5.1812544 -1.2022887 0 9
-0.78745443 -5.1883917 -1.1982076 0 9
-0.63985544 -5.2215867 -1.2011385 0 9
-0.48974881 -5.237206 -1.2010039 0 9
-0.33962929 -5.2540274 -1.2021314 0 9
-0.1884194 -5.2518225 -1.1998957 0 9
-0.037697449 -5.2566552 -1.2002585 0 9
0.11313882 -5.2567964 -1.2005378 0 9
0.2636379 -5.246356 -1.1993876 0 9
0.41494885 -5.2482762 -1.202054 0 9
0.56712168 -5.2507815 -1.2058591 0 9
0.71401817 -5.2068577 -1.1999836 0 9
0.86422825 -5.1910677 -1.2015657 0 9
1.0130297 -5.1653843 -1.2018554 0 9
1.162745 -5.1428499 -1.2038805 0 9
1.3072563 -5.0974746 -1.2015461 0 9
1.4567099 -5.0709772 -1.2046583 0 9
1.5981022 -5.0161915 -1.2020437 0 9
1.7391944 -4.9621592 -1.200562 0 9
1.8841933 -4.9190192 -1.2027119 0 9
2.0248594 -4.8637433 -1.2029096 0 9
2.1643784 -4.8054962 -1.2033706 0 9
2.2938123 -4.7259212 -1.1994343 0 9
2.4357543 -4.6722097 -1.203048 0 9
2.5663111 -4.5959911 -1.2018914 0 9
2.6966236 -4.5196872 -1.2016802 0 9
2.8333166 -4.4532795 -1.2051466 0 9
2.9540069 -4.3614697 -1.2027475 0 9
3.0704515 -4.2645812 -1.1998345 0 9
3.1961145 -4.1807518 -1.2015606 0 9
3.3151052 -4.0878091 -1.2016966 0 9
3.4185169 -3.9765015 -1.1973226 0 9
3.5410235 -3.8876054 -1.2006596 0 9
3.6464834 -3.7796543 -1.1991457 0 9
3.7752354 -3.6948576 -1.2061193 0 9
3.8582776 -3.5652678 -1.1994675 0 9
3.97927 -3.4708316 -1.2056197 0 9
4.0559502 -3.3377669 -1.1993368 0 9
4.163662 -3.2306204 -1.2032765 0 9
4.2439222 -3.1020286 -1.20025 0 9
4.3290749 -2.9775739 -1.1996717 0 9
4.4284697 -2.8623497 -1.2039565 0 9
4.4994783 -2.7285082 -1.2014787 0 9
4.5928373 -2.6079302 -1.2059265 0 9
4.6579089 -2.4709406 -1.2038975 0 9
4.7144089 -2.3301439 -1.2007226 0 9
1.765183 -0.81030816 -0.44347283 0 9
1.744315 -0.74090934 -0.43271005 0 9
1.7458047 -0.68311363 -0.42804018 0 9
1.7487298 -0.62703174 -0.42417079 0 9
1.7494354 -0.57120138 -0.42019281 0 9
1.7260603 -0.50926256 -0.41089886 0 9
1.7332919 -0.45777774 -0.40932444 0 9
1.7251567 -0.40306526 -0.40450507 0 9
1.7236897 -0.35090292 -0.40163451 0 9
1.7220724 -0.29940411 -0.39909127 0 9
1.7231003 -0.24889109 -0.3975105 0 9
1.7132108 -0.19747797 -0.39375955 0 9
1.7133808 -0.14783758 -0.39266181 0 9
1.7090356 -0.098173328 -0.39085943 0 9
1.7000966 -0.048789702 -0.38833496 0 9
1.690473 0 -0.38597783 0 9
1.69206 0.048559066 -0.38649923 0 9
1.6766167 0.096311063 -0.38344514 0 9
1.6721157 0.14427705 -0.38320494 0 9
1.6771934 0.19332632 -0.38548142 0 9
1.6692803 0.24111712 -0.38509449 0 9
1.6659994 0.28965509 -0.38609633 0 9
1.6771181 0.34142202 -0.39078292 0 9
1.6663123 0.38931689 -0.39070758 0 9
1.6473683 0.43508455 -0.3890332 0 9
1.6560694 0.4886122 -0.39423713 0 9
1.6535304 0.53988773 -0.39715758 0 9
1.6515212 0.5921762 -0.40059191 0 9
1.6345237 0.63957065 -0.40075609 0 9
1.6345582 0.69428939 -0.40548283 0 9
1.6199541 0.74364078 -0.4069865 0 9
1.6384535 0.80982208 -0.41730112 0 9
1.6123681 0.85533357 -0.41673762 0 9
1.6102562 0.91434455 -0.4227998 0 9
1.6141331 0.97881913 -0.43101588 0 9
1.6092353 1.0401323 -0.4374986 0 9
4.3281446 2.9769342 -1.199414 0 9
4.2533221 3.1088996 -1.2029085 0 9
4.1573 3.2256842 -1.201438 0 9
4.0658379 3.3459039 -1.2022606 0 9
3.9664519 3.4596515 -1.2017362 0 9
3.86798 3.5742333 -1.2024839 0 9
3.7586026 3.6785791 -1.2008054 0 9
3.6470475 3.7802389 -1.1993312 0 9
3.5450227 3.8919964 -1.2020158 0 9
3.4373238 3.9983783 -1.2039096 0 9
3.3091533 4.0804701 -1.1995392 0 9
3.2049892 4.1923604 -1.2048969 0 9
3.0729539 4.2680573 -1.2008125 0 9
2.9475205 4.3518929 -1.2001065 0 9
2.8259811 4.44175 -1.2020264 0 9
2.6933939 4.5142741 -1.2002411 0 9
2.5618336 4.5879722 -1.1997944 0 9
2.4346802 4.6701493 -1.2025175 0 9
2.2956018 4.7296081 -1.2003701 0 9
2.1606381 4.7971921 -1.201291 0 9
2.0205011 4.8532748 -1.2003205 0 9
1.8843597 4.9194536 -1.2028182 0 9
1.7388145 4.9610753 -1.2002997 0 9
1.59448 5.0048218 -1.1993191 0 9
1.4527314 5.057128 -1.2013683 0 9
1.3084638 5.1021833 -1.202656 0 9
1.159411 5.1281037 -1.2004286 0 9
1.0166012 5.1835957 -1.2060926 0 9
0.86240709 5.1801286 -1.1990337 0 9
0.71510547 5.2147865 -1.2018108 0 9
0.56382519 5.2202606 -1.1988498 0 9
0.41485015 5.2470279 -1.2017682 0 9
0.26420537 5.2576489 -1.2019693 0 9
0.11305804 5.2530432 -1.1996807 0 9
-0.037690494 5.2556853 -1.200037 0 9
-0.18836397 5.250278 -1.1995428 0 9
-0.33961937 5.2538738 -1.2020962 0 9
-0.48882106 5.2272849 -1.1987288 0 9
-0.64137632 5.2339978 -1.2039936 0 9
-0.78769791 5.1899962 -1.1985781 0 9
-0.93800259 5.1749001 -1.2008141 0 9
-1.0875522 5.1529055 -1.2024577 0 9
-1.2327647 5.1106396 -1.2003562 0 9
-1.3800515 5.0775452 -1.2013907 0 9
-1.5226766 5.0277328 -1.1994503 0 9
-1.6680636 4.9873242 -1.200736 0 9
-1.8069185 4.9278026 -1.1983969 0 9
-1.9547296 4.8919444 -1.2028236 0 9
-2.091444 4.8273635 -1.2012078 0 9
-2.226959 4.7608829 -1.2000741 0 9
-2.3671849 4.7041216 -1.2023952 0 9
-2.4973052 4.6271462 -1.2005445 0 9
-2.6237359 4.5444627 -1.1981345 0 9
-2.7597015 4.478168 -1.2010422 0 9
-2.8931801 4.4065289 -1.2036014 0 9
-3.0139668 4.3153777 -1.2018349 0 9
-3.1307199 4.2193265 -1.1996129 0 9
-3.2546222 4.1330557 -1.2011458 0 9
-3.3792288 4.046834 -1.203776 0 9
-3.4706318 3.921906 -1.1957499 0 9
-3.6024468 3.8428543 -1.2026733 0 9
-3.7091434 3.7358582 -1.2020062 0 9
-3.8148143 3.6279466 -1.2020154 0 9
-3.9137566 3.5138235 -1.2009228 0 9
-4.005949 3.3941786 -1.1988293 0 9
-4.1067233 3.2819064 -1.2003071 0 9
-4.1938848 3.1587608 -1.1987936 0 9
-4.274796 3.0314972 -1.1965611 0 9
-4.3793602 2.9205325 -1.2018745 0 9
-4.4616408 2.7938929 -1.2019563 0 9
-4.5332303 2.6608095 -1.2001768 0 9
-4.5986457 2.5247049 -1.1978199 0 9
-4.6863332 2.4005351 -1.202221 0 9
-4.7421007 2.2597921 -1.1993967 0 9
-4.8026862 2.1218174 -1.1988255 0 9
-4.8723516 1.9875678 -1.2014825 0 9
-4.9229422 1.8453227 -1.2004046 0 9
-4.9717979 1.7026386 -1.199909 0 9
-5.0101852 1.556702 -1.1978984 0 9
-5.0656247 1.4159279 -1.2009437 0 9
-5.1059256 1.2704706 -1.2013596 0 9
-5.1389699 1.1231931 -1.2010559 0 9
-5.1753898 0.97650385 -1.2025231 0 9
-5.1884456 0.82559764 -1.1995575 0 9
-5.2128592 0.6767922 -1.2002172 0 9
-5.2321157 0.52717584 -1.2006733 0 9
-5.2609324 0.37800702 -1.2043009 0 9
-5.2598586 0.22651437 -1.2020721 0 9
-5.2720561 0.075647667 -1.2038679 0 9
-5.2622166 1.3963764e-05 -1.2014974 0 9
-6.241447 -0.08955726 -1.2001044 0 10
-6.2416668 -0.26879567 -1.2011353 0 10
-6.2292619 -0.4475832 -1.2007256 0 10
-6.2203898 -0.62675208 -1.2019876 0 10
-6.1955895 -0.80438137 -1.2011615 0 10
-6.1703296 -0.98183739 -1.2012324 0 10
-6.1321783 -1.1570327 -1.1997756 0 10
-6.1242118 -1.3385314 -1.2052363 0 10
-6.0594659 -1.5077331 -1.2005155 0 10
-6.0183964 -1.6822437 -1.2014489 0 10
-5.9638429 -1.8530107 -1.2006799 0 10
-5.9116988 -2.0245163 -1.2013844 0 10
-5.8581429 -2.1958747 -1.2028121 0 10
-5.7883453 -2.361227 -1.2018994 0 10
-5.7348342 -2.5336387 -1.2053899 0 10
-5.6296196 -2.6827285 -1.1989636 0 10
-5.5558743 -2.8459504 -1.2001581 0 10
-5.4722033 -3.0042975 -1.2002141 0 10
-5.3868637 -3.1618552 -1.200904 0 10
-5.2978182 -3.3175094 -1.2017828 0 10
-5.2001591 -3.4679117 -1.2017108 0 10
-5.09831 -3.6154969 -1.2016572 0 10
-4.9858737 -3.7552733 -1.2000632 0 10
-4.8819795 -3.9014556 -1.201511 0 10
-4.7576194 -4.0310574 -1.1988822 0 10
-4.635098 -4.1614537 -1.1976091 0 10
-4.5308247 -4.3088832 -1.2021226 0 10
-4.4054422 -4.4371719 -1.2021468 0 10
-4.2828364 -4.5686493 -1.2039722 0 10
-4.1458983 -4.6849756 -1.2027777 0 10
-4.0030608 -4.793911 -1.200757 0 10
-3.8620214 -4.9043941 -1.2001753 0 10
-3.7199605 -5.0134563 -1.2002455 0 10
-3.575784 -5.1197844 -1.2006392 0 10
-3.4320509 -5.2272696 -1.2022529 0 10
-3.2801297 -5.3226671 -1.2020487 0 10
-3.123482 -5.4100513 -1.2010452 0 10
-2.9672284 -5.4978466 -1.2011369 0 10
-2.8090034 -5.5821128 -1.2014403 0 10
-2.6464558 -5.6576996 -1.2008681 0 10
-2.4831505 -5.7314796 -1.2009082 0 10
-2.3194871 -5.8047934 -1.2018274 0 10
-2.1487656 -5.8600831 -1.2000133 0 10
-1.9868367 -5.9404206 -1.2042925 0 10
-1.8131529 -5.9868579 -1.2026628 0 10
-1.634515 -6.0137787 -1.1981544 0 10
-1.4646325 -6.071888 -1.2008631 0 10
-1.2865701 -6.0958672 -1.1978102 0 10
-1.1132419 -6.1416841 -1.2000413 0 10
-0.93847632 -6.1834469 -1.202444 0 10
-0.75961179 -6.1988668 -1.2007091 0 10
-0.58146185 -6.2179542 -1.2006797 0 10
-0.40306377 -6.235352 -1.201311 0 10
-0.2242467 -6.2504382 -1.2024826 0 10
-0.04483512 -6.251955 -1.202032 0 10
0.13465765 -6.2566314 -1.2031786 0 10
0.31373888 -6.2433586 -1.2018629 0 10
0.49136063 -6.2147331 -1.1985735 0 10
0.67074543 -6.2101974 -1.2009168 0 10
0.84854138 -6.1878452 -1.200809 0 10
1.0240402 -6.1509933 -1.198867 0 10
1.2050022 -6.1442423 -1.2037957 0 10
1.3792959 -6.1006603 -1.2025172 0 10
1.5499601 -6.0438662 -1.1995962 0 10
1.7221676 -5.9950666 -1.1992263 0 10
1.8980895 -5.9578042 -1.2021738 0 10
2.0692561 -5.9038696 -1.2027782 0 10
2.2366138 -5.8390751 -1.2021594 0 10
2.4043207 -5.7752151 -1.2027224 0 10
2.5692425 -5.7044024 -1.2028352 0 10
2.7284656 -5.6214337 -1.2013566 0 10
2.8874025 -5.5385509 -1.200858 0 10
3.0488815 -5.4602232 -1.2023512 0 10
3.1950078 -5.3550062 -1.1988791 0 10
3.3508615 -5.2667336 -1.2001517 0 10
3.5057766 -5.1761351 -1.201938 0 10
3.6491292 -5.0683126 -1.2007241 0 10
3.7912683 -4.9592566 -1.2001699 0 10
3.9409065 -4.8594761 -1.2028973 0 10
4.0752311 -4.7404075 -1.2018784 0 10
4.2119384 -4.624187 -1.2025635 0 10
4.3353171 -4.4936442 -1.2004759 0 10
4.4739337 -4.3786802 -1.2035681 0 10
